ply
format ascii 1.0
comment Created by Open3D
element vertex 1258
property double x
property double y
property double z
property uchar red
property uchar green
property uchar blue
end_header
-0.229985 1.33108 -2.28747 217 207 192
5.50527 1.00485 -2.58245 179 163 146
0.112327 1.4733 -2.06879 157 143 123
-0.758926 -0.0724557 -2.11095 160 111 53
3.01773 0.0367004 -2.63466 178 124 68
1.07811 0.556153 -0.328778 51 56 25
-0.0485628 0.473957 1.23947 33 25 20
2.13395 1.10987 -2.6125 228 210 188
-0.692278 1.27716 -2.85182 129 129 121
2.49358 0.244153 0.987376 46 36 24
0.196435 0.0660432 -2.08081 75 37 0
1.25757 0.678293 -2.92074 31 13 7
-1.13465 0.285336 -2.41882 151 130 103
0.259709 0.275098 0.306049 213 196 171
3.92373 0.324074 -1.39269 104 136 43
0.843415 0.588562 -1.5279 180 167 148
-0.640762 -0.122126 -1.37607 164 112 51
-1.77169 1.3508 -1.15786 131 125 117
3.42344 -0.177286 -1.15569 154 99 45
-1.54915 1.13087 0.284726 239 193 136
0.0604926 -0.123475 0.248038 162 98 33
2.8842 -0.0489054 -2.95804 143 88 34
4.59854 0.438854 -1.36442 103 49 15
-0.0116216 0.948793 1.57818 222 191 156
-0.151086 0.159072 -0.326717 152 113 84
0.0793688 0.0435655 0.290025 188 164 136
0.0723026 0.0151278 -2.21855 146 95 41
3.80056 0.978576 -3.13289 171 154 136
3.21204 0.0356426 -2.39886 189 128 66
-0.143279 0.0788728 0.241955 144 88 31
3.46479 -0.164935 -0.968203 170 113 58
-1.42356 0.63525 1.31145 74 56 41
0.934784 0.0900442 -2.74353 207 146 89
3.80454 0.759475 0.961205 78 73 43
-0.168425 0.592672 2.32658 99 88 74
1.08475 0.77596 -0.0546236 42 43 22
3.99343 0.362737 -2.76659 190 172 148
0.023584 0.97088 0.230198 133 118 103
-0.912565 0.720291 1.43884 172 166 140
1.52182 1.31279 -2.90541 136 114 71
-0.526104 0.0638589 -0.153653 149 103 54
-0.23651 0.00263199 0.160965 130 76 19
0.715342 -0.08287 -2.67683 121 73 19
-1.39765 1.48167 -2.82471 174 168 155
3.04725 0.0472393 -2.93541 159 103 42
-0.115927 0.907007 1.11539 78 69 62
-0.600708 0.429976 0.575807 121 89 65
-1.1213 0.795676 -0.80388 86 80 72
-0.102702 1.47359 -0.567506 167 165 157
1.00889 0.516062 -2.88367 172 153 135
-1.49149 0.944096 -2.47203 61 58 55
-0.591458 0.93062 1.90629 128 112 94
0.871995 1.48212 -0.634838 206 200 184
-0.0784817 0.0353156 -1.71863 165 110 53
1.6436 1.27229 -2.86986 124 85 32
5.90819 0.472361 -1.77519 52 47 32
-0.0315281 1.11276 -0.2702 187 180 168
-1.23866 1.52663 0.237811 163 156 142
2.07202 1.22402 -3.15367 166 151 130
-1.02301 0.0832412 -2.13484 155 105 46
3.91802 1.37078 0.793779 131 115 73
2.84822 0.218948 0.583457 56 51 45
-1.16854 0.15408 0.538069 108 66 23
2.42387 -0.0755876 -2.14961 124 79 34
-1.44475 1.17954 -1.97104 120 135 129
-0.252041 0.583409 2.35218 130 122 113
0.842869 0.994991 -1.99415 136 118 96
0.00798036 -0.0661384 -2.38282 124 81 35
-1.12132 0.102769 -2.42449 119 77 30
-0.0830853 0.0826364 0.273132 129 74 15
-0.0715993 0.039661 -2.31741 149 93 27
-0.418714 0.34673 1.1194 121 87 56
0.830607 1.1177 0.0493044 195 187 165
2.10769 -0.0350282 -0.0673074 174 112 53
-1.03319 -0.00447043 -0.392972 158 116 65
-0.125238 0.62337 2.12728 123 108 87
0.809691 1.32345 0.00152351 209 197 179
-1.32781 1.09112 -0.367665 119 116 109
0.0868505 0.38056 0.106934 217 199 177
-0.164019 0.0351881 -1.9541 163 105 44
-0.159079 -0.0895526 0.750482 189 127 63
3.22108 0.247159 0.958684 123 89 56
-0.212998 0.528597 2.27157 60 46 32
-1.31552 0.028962 0.575227 136 89 36
5.26446 0.242738 -2.53898 140 119 102
-1.12969 0.671788 -2.73934 186 177 166
4.13766 -0.0681088 -2.8727 163 128 93
1.52662 1.31886 -2.87712 168 138 62
-0.626991 0.436946 -3.14982 190 174 154
4.05729 0.911815 -0.226701 124 109 92
-0.445813 1.21353 -3.00994 93 133 159
3.24536 0.0094017 -0.57139 170 110 51
3.24337 -0.113462 -2.14858 156 104 55
-0.248185 0.881633 1.87948 63 54 47
-0.361808 0.36385 1.07698 108 88 69
1.19643 -0.00383302 -2.11835 166 114 63
-1.1484 -0.0216102 -0.654342 126 83 34
-0.688095 1.39935 1.01268 192 173 154
0.833116 0.0388795 -2.2994 180 133 88
1.03029 -0.0890376 -2.42284 171 119 71
-0.842428 1.31799 -3.13367 219 215 205
1.22334 0.397466 -2.8784 67 84 87
3.91757 1.39247 1.17049 121 105 84
-0.526291 -0.296148 -0.520475 153 99 39
3.99298 0.799345 -0.306445 102 91 79
0.0424897 -0.0285581 0.957476 169 109 44
-1.22941 0.910869 -2.21521 220 215 205
-0.157511 0.00183574 -0.0796124 182 115 46
-1.19378 0.910435 -2.11685 187 181 169
0.537687 0.919205 0.10277 57 47 36
-0.0778202 -0.0409048 0.159932 149 89 26
-1.18987 0.880046 -0.690473 48 40 35
-0.314871 0.724023 1.67715 168 140 110
3.01009 0.034085 -2.75431 150 96 41
-0.745229 -0.0937216 -2.94238 127 87 44
0.246196 1.1868 -0.0888556 129 112 95
-0.590403 0.901539 1.54139 189 175 167
3.82731 0.390248 -1.50247 48 42 28
-0.439668 1.53234 -2.93382 115 115 108
-0.322511 0.0574264 0.780104 118 69 20
-0.289645 0.0148958 -1.10612 153 98 41
-1.51795 1.34407 0.107465 254 254 250
4.42857 0.022282 -2.31235 196 171 146
0.802151 0.880584 -0.193772 141 133 119
-1.23172 1.2178 0.0518667 168 164 162
-0.470716 0.802194 1.76115 162 66 66
4.04526 1.26156 -2.64971 225 213 190
0.869136 0.113659 0.348021 213 185 163
-1.09793 0.782859 -2.59961 192 191 186
0.669452 0.755441 -1.97108 129 112 90
3.18954 0.248838 0.806176 121 72 23
4.12628 1.15236 -0.933012 233 219 199
-0.516935 1.15873 -3.02651 81 69 27
-0.0190757 0.126755 -3.28652 179 154 125
3.66362 0.648692 1.24564 135 123 111
2.93197 0.571112 1.35484 172 159 144
-0.695838 0.0844284 1.44874 95 73 53
-0.140251 -0.0275333 -3.05885 215 163 119
-1.27592 0.89685 -2.81727 51 49 46
-0.869855 1.12931 1.26205 202 190 175
-0.449685 0.795531 1.43442 198 158 123
0.0366449 -0.0402412 -1.51116 156 107 53
0.431491 1.28136 1.81982 78 71 62
-0.256729 0.935649 1.94248 137 122 107
0.0286092 0.804378 -0.000122469 164 154 144
2.39922 0.522586 -0.0737509 171 157 135
3.51217 -0.125902 -2.12678 129 81 37
0.850912 0.354124 0.120883 166 150 132
-0.879984 0.748226 1.97277 202 177 145
0.481993 0.789374 0.271443 106 98 86
-0.392207 -0.0913059 -0.837525 175 110 47
-0.60077 0.691442 1.16878 205 197 176
1.4059 1.11259 -3.07664 105 99 97
1.13573 0.173248 -1.6126 6 5 3
3.87105 0.0407474 -1.30817 105 57 36
-1.20047 0.0907823 0.80182 139 86 35
-0.673236 0.698765 0.593456 191 153 124
-0.0135257 0.620116 -0.517158 213 203 190
-0.599134 -0.0157138 -1.37315 155 102 42
5.00461 0.16577 -2.23942 72 30 25
-0.394868 0.160758 -2.31536 145 103 57
3.18109 0.67594 1.0877 156 144 131
0.0498909 0.68184 0.16977 175 162 144
0.0265141 0.481528 1.72634 188 150 122
0.836073 0.362166 -0.00304803 145 135 112
-0.0330977 1.5839 -0.597336 211 206 203
1.86596 0.303022 1.34965 91 74 49
-0.0819963 -0.0393627 0.739637 123 74 20
2.52596 0.449015 -0.123101 109 73 64
0.0720587 -0.0281443 -2.11686 146 96 39
0.898169 0.767583 -1.93273 112 96 73
4.10284 1.23381 -2.99738 160 144 124
-0.671675 1.24764 1.27597 179 169 147
-1.1909 0.897162 -0.0358904 64 63 61
3.76411 0.540376 0.438905 135 115 96
5.80866 1.03798 -1.35592 166 149 131
-0.0816004 -0.0293726 -0.275573 189 128 66
0.108538 1.82001 -2.22643 158 144 125
0.656171 0.196462 -2.21903 128 84 44
-0.75493 -0.00724729 -0.972009 136 88 38
-0.0993397 0.579666 0.0983126 231 216 195
-0.66616 -0.0228247 -0.665869 179 126 67
1.58463 0.013633 -1.84145 185 124 74
-0.836468 0.842066 1.11969 211 180 154
0.658041 0.142776 -2.84385 103 61 16
3.23158 0.636839 1.57729 123 113 103
-1.07565 0.748781 -2.56648 137 131 120
3.93558 0.913459 -2.98188 89 84 63
-0.236056 -0.00598783 -2.19587 181 118 54
-0.783367 1.41862 -3.01522 147 98 75
-1.1223 0.649915 -1.35827 175 158 138
2.92172 0.142298 1.02359 45 39 33
-0.865811 0.256266 -2.39227 129 89 46
2.68193 0.441611 -0.231202 74 72 75
4.2216 1.61906 -2.66334 113 108 87
1.3932 0.778482 -2.81415 187 149 106
-0.707028 0.796729 2.04287 174 104 84
0.35109 1.92952 0.172645 152 128 102
0.874949 -0.0219572 -2.52277 147 101 51
6.13115 0.0434798 -1.55306 43 30 18
0.149978 0.646191 0.414957 186 173 155
4.76951 0.536959 -1.41659 43 26 11
0.732459 -0.0262126 -2.19467 210 159 117
-1.13723 0.498694 -0.872164 146 124 100
-1.19094 0.94819 0.00451447 42 41 39
-0.096604 -0.0902943 -2.93437 99 64 32
-0.0780219 -0.0382443 -0.386233 187 122 54
6.03857 -0.0528273 -1.50546 38 19 3
-1.20674 0.483889 -1.45605 235 229 222
4.80412 0.0603832 -2.06896 143 111 82
4.15917 0.163983 -1.47843 92 124 91
0.817565 1.27943 -0.0800568 180 173 155
-0.710121 0.714993 1.53563 179 168 164
0.849882 -0.0257136 -2.12936 222 170 120
5.30023 0.0610459 -2.41755 22 20 28
-1.3282 1.65502 -2.10788 158 151 139
-0.602442 0.828147 1.62115 114 177 173
0.882169 -0.0052417 -2.00072 94 89 84
-0.504062 0.730513 1.52999 170 129 96
-1.1651 0.99045 0.240209 40 38 37
0.718899 1.55671 0.0883566 99 93 91
4.0503 0.569013 -2.50099 222 203 181
-1.31094 1.5203 -1.30258 184 181 174
-0.436803 -0.0061631 -1.84364 172 124 72
-0.00713102 1.77581 -0.619728 225 225 220
0.696229 0.0642792 0.451856 153 98 37
2.36193 1.16194 -3.05317 208 190 171
-1.39771 1.09068 0.139486 242 238 240
0.87556 2.36277 -1.43929 177 160 132
-0.682793 0.705838 0.575211 196 173 151
-0.453581 0.973946 2.08794 70 67 65
-0.448974 0.89556 -3.12196 82 74 62
2.45803 -0.0522604 -0.0940071 105 58 15
0.835002 1.99912 -1.81641 172 155 130
-1.66579 0.962933 -2.27519 130 139 133
-0.267276 0.294861 -2.93179 214 178 135
1.76372 0.852224 -2.72856 220 201 178
-0.623055 -0.080622 -1.1788 140 93 42
-1.11482 0.634958 -1.39464 151 132 107
-1.16256 -0.0868567 -1.54847 158 111 59
0.870573 -0.0775488 1.17991 180 119 53
4.00207 0.800364 -1.07047 29 55 91
-1.30579 0.963346 -2.51956 12 10 7
-1.52005 1.04476 -0.834545 22 25 26
4.21472 0.651658 -0.0359962 44 36 28
3.13127 0.0890723 -2.45693 183 133 83
0.162712 -0.117267 -2.73621 128 86 49
-0.83809 0.760179 1.21027 160 160 142
0.756918 1.83406 -0.027749 197 186 168
0.880808 2.4308 -1.9478 152 141 114
2.27841 0.46703 -0.18977 131 98 74
0.0192155 0.647867 -0.147285 216 208 200
-1.33557 1.50718 -0.865304 226 227 220
3.24592 -0.00118427 -2.81505 165 105 44
0.895112 1.66711 -1.41727 173 161 136
0.530098 -0.0679191 -1.98379 174 156 137
-0.549697 1.11462 -3.0431 78 88 71
-1.55521 0.765569 -1.30643 122 118 102
0.870339 2.21422 -1.48185 152 138 111
1.35064 1.08841 -2.75595 188 155 112
2.81026 0.0155928 -2.44213 211 148 87
-1.36532 1.11266 0.00141122 85 87 89
2.60052 0.0508317 0.23105 123 76 30
0.114089 1.13146 -0.0462878 101 84 60
-0.490712 -0.079505 -2.27441 124 76 24
-0.00674891 -0.0366667 -1.66888 187 127 71
0.849674 0.556587 -0.329598 10 8 7
2.28978 1.57077 -2.84805 208 185 169
-1.45574 0.973007 0.274391 68 63 61
0.0526449 0.0114415 -2.20352 168 108 44
0.0364694 -0.0235016 0.318971 156 108 58
-0.0553051 0.34403 1.53337 102 65 38
4.25351 1.53142 -0.301112 128 163 107
1.46377 -0.106695 -1.89639 144 92 42
7.14576 0.741167 -1.80515 3 2 2
3.63099 0.0625033 -3.09658 188 165 142
0.812014 0.0524293 -0.0426387 137 122 101
-1.03249 0.585986 -3.26479 165 155 136
6.59497 0.740517 -1.97681 12 10 10
3.22532 1.50467 1.1333 174 165 151
3.96253 0.64515 0.891015 54 52 37
2.78512 0.0630054 -2.52098 204 141 79
0.750655 1.38162 -1.13975 138 128 109
-0.580899 -0.0448145 -0.0129918 140 88 33
-0.0368785 -0.00134838 0.701717 139 86 28
4.20741 1.22763 -3.01688 132 115 96
-1.45222 0.186728 1.00816 129 89 42
2.83123 -0.0682784 -1.43557 179 119 63
-0.932444 0.725265 1.26524 156 166 137
4.40217 0.78172 -0.385661 162 146 130
5.18824 0.23235 -2.40111 50 13 9
-0.604197 -0.0354853 -1.48335 161 110 51
-0.911499 0.764049 1.12226 176 159 138
1.2889 0.164886 -2.26249 112 71 33
3.85357 0.884049 0.967628 108 91 50
3.69025 0.00301656 -1.7914 174 117 61
-0.165105 1.7687 -0.617424 203 195 180
2.93373 0.135568 -2.49478 138 87 36
0.119025 0.12388 -0.00931232 213 189 164
-0.44232 0.775462 0.887334 177 178 151
-0.516008 0.725178 1.59246 107 105 83
-1.06586 0.789568 -0.286374 8 8 8
0.0404191 0.517668 0.211563 201 184 160
-1.07498 0.975707 0.24988 23 23 22
0.846095 1.96794 -1.17472 195 179 152
1.11194 0.756524 -0.210728 102 82 51
1.31614 0.761698 -2.78679 176 138 94
4.68034 0.383575 -1.25587 90 79 64
5.2631 0.1082 -2.31935 49 33 30
2.67955 0.0188068 -2.7596 146 90 40
-0.680633 1.16276 -3.10903 114 118 114
1.18086 0.469993 -2.87369 72 86 87
-1.14998 -0.0967363 -2.33752 172 116 50
5.89183 0.202605 -1.74182 13 12 13
-0.665856 0.835919 1.72049 199 166 151
-0.636652 1.50257 -3.1953 164 157 142
-0.0481532 -0.059112 -1.00291 215 153 74
-0.944443 1.01938 -3.13348 179 160 134
-1.56364 0.950299 -2.12829 211 206 198
6.61402 0.853014 -1.78783 2 1 2
4.02703 1.53929 0.887999 103 98 37
-0.519386 -0.00575013 -2.18267 157 111 64
-1.59583 1.43526 -3.11112 238 234 225
3.73395 0.982831 -3.26588 156 139 123
-0.614192 -0.0693761 0.287068 216 161 100
-0.949583 0.918847 -3.14147 195 184 167
-1.1177 0.915292 -1.47697 124 123 109
0.763196 0.239046 -1.95425 140 128 104
0.0867543 -0.0795608 -2.19927 173 123 69
-1.59133 0.893336 -2.39473 148 161 152
0.806526 0.428088 -1.75425 86 74 53
1.38025 1.37065 -3.03815 39 58 39
-0.696798 0.749298 1.24713 239 222 197
-0.242501 0.829359 1.41411 117 108 101
2.61577 0.315542 0.69337 50 44 37
3.96004 0.800136 -3.08091 110 73 37
-0.835069 -0.0530291 -1.60066 156 105 48
-1.17061 0.807522 -1.31204 151 132 114
6.64496 0.699649 -1.84164 26 25 26
-0.475771 -0.18634 -2.32903 121 78 32
-1.09972 0.583751 -2.40329 168 162 153
0.150445 0.00739695 0.892628 84 47 12
-1.0609 0.802717 0.151285 196 173 144
-0.363987 -0.268797 0.751915 169 114 56
2.51634 0.167526 0.955203 40 32 24
0.800779 1.12052 -1.96868 154 136 116
-0.171772 0.51055 -1.96162 158 116 70
0.0157218 0.109184 -2.72333 108 67 20
-0.402814 0.725971 1.72476 126 138 113
2.71975 0.566342 1.01532 70 62 53
-1.40483 1.03648 -1.04474 214 158 136
-0.10168 0.193831 -0.924017 202 145 79
0.933909 1.70381 -1.0299 193 181 165
-1.22511 0.945785 1.10731 208 196 179
-1.22093 0.823955 -1.36658 180 169 154
1.92513 0.234591 1.02819 193 127 56
0.804642 1.16817 -1.67345 98 82 62
-1.23319 0.38471 -1.17973 179 161 141
0.40356 0.649519 2.45304 28 27 29
3.87947 0.30082 -1.50685 164 174 12
3.66616 0.00917381 -2.79641 129 82 36
-1.21699 0.808715 -2.66064 92 89 85
-1.20153 0.832178 0.00307625 95 87 75
-0.30304 1.6344 -2.46954 159 145 125
-1.43548 1.28565 -2.93557 234 211 190
-1.53842 0.8449 -0.939224 24 25 28
5.8823 0.15738 -1.54896 52 40 29
0.206016 -0.00912812 -2.28303 125 78 24
-0.848311 1.09618 -3.05212 195 167 152
-0.956259 0.765815 1.2037 193 187 166
-1.5638 1.10513 -1.92802 251 246 166
0.800503 0.30967 -1.80203 80 68 48
-0.468855 0.733416 1.05482 190 183 153
-1.65054 1.00018 -1.67159 119 114 100
4.53701 0.237007 -2.31838 128 103 88
-1.29863 0.965088 -1.12826 93 89 83
4.07583 -0.138534 1.37697 103 74 54
-1.06235 0.163579 0.567362 142 99 61
0.862228 0.514446 -1.83862 105 87 64
1.55803 0.160443 -1.61016 201 148 98
1.16418 0.0489116 -0.0395024 165 124 86
4.04533 0.960179 -3.01651 83 80 56
3.84668 1.59511 0.923041 165 151 128
1.53162 0.194747 -0.865927 181 120 63
-0.0855599 1.04994 -0.463181 125 68 56
4.22007 1.60965 -2.68339 107 104 83
-0.727483 0.658222 -2.96457 185 173 154
1.94528 1.53085 -3.16232 227 214 196
-0.157309 0.0304647 -1.7942 159 101 39
-0.071357 0.0945457 -3.18467 154 131 108
4.13116 0.8469 -0.959016 26 52 87
-1.84688 1.248 -1.30622 150 175 153
-1.43321 0.838994 -2.23136 116 108 98
0.582504 0.0018227 -2.28088 205 164 124
-0.997823 -0.0359639 -2.21121 186 131 66
-0.426283 0.49717 -2.94336 110 86 51
-0.353832 -0.0032445 -2.1998 184 123 56
-0.356548 -0.0586088 0.391128 156 95 33
-1.54368 1.02652 -0.877863 15 16 18
-0.72488 1.4202 1.15195 188 180 168
3.08207 -0.00970541 -0.770031 204 139 77
-1.2356 1.18665 -2.90617 74 149 210
0.176972 1.46151 -1.96458 228 221 205
-0.338336 -0.0779037 -0.140073 219 161 105
1.94569 1.5118 -3.0882 194 182 166
7.23026 0.832344 -1.60855 26 13 10
5.78829 -0.0577333 -1.7344 103 67 32
2.69024 0.585092 -2.90744 216 199 175
2.70758 0.0284717 -2.83242 143 88 35
3.04415 0.265367 0.570362 118 80 40
3.68922 1.28965 0.829038 75 82 40
0.184322 0.984786 -1.25625 224 214 197
1.38997 -0.0248194 0.797345 170 109 48
1.38258 -0.0102943 -1.88643 142 91 45
3.73875 0.990905 -3.0839 206 193 178
-0.0974962 0.0915583 -2.00686 162 102 40
-0.599516 0.761201 2.09032 122 91 64
-0.511291 0.0548114 -1.35537 169 121 68
3.71966 0.388511 -0.735885 133 123 119
-1.14342 0.933485 -0.195495 48 47 45
3.80793 0.974397 -0.409032 95 82 66
-0.0158001 1.39943 -0.417751 72 101 118
-0.442198 0.600823 -3.08405 97 97 92
-1.63833 1.14726 -2.5405 124 122 111
1.55889 0.0822715 -0.21844 186 124 63
-0.701736 0.91515 1.72354 100 41 26
3.87445 -0.0366651 1.35022 86 59 34
0.089 1.30593 -0.260997 53 77 78
5.65259 1.07651 -1.25114 149 130 114
0.0671433 0.0684897 -0.0370265 191 181 164
0.0991903 0.0521681 -2.65617 164 113 52
-1.03678 -0.169934 -0.842408 148 103 48
-0.361527 0.111761 0.543448 132 83 32
3.49578 0.519618 0.937599 133 130 110
3.19384 0.0220461 -3.77975 69 38 9
-0.0295643 1.75389 -1.03925 211 182 183
1.07275 0.797027 -0.167446 90 74 44
0.582102 0.0026606 1.70641 109 66 25
-1.15323 0.298994 -1.20717 183 154 122
-0.853046 0.994177 -3.01007 167 153 133
4.04487 0.754061 0.860199 116 100 79
-1.61608 1.22085 -1.6847 84 80 73
0.179145 0.246912 -3.15301 180 165 149
-0.472666 0.812266 -2.87613 125 111 88
4.03824 0.636033 -2.59401 224 207 186
2.56163 0.517013 -0.266377 185 135 131
-0.0156965 1.56464 -0.53621 191 186 177
1.57241 0.139941 -0.631082 175 111 54
1.60703 1.26315 -2.89128 164 132 74
0.155188 1.22703 -2.01964 143 133 112
0.841001 -0.0267928 -2.23786 211 162 113
-1.13625 0.808424 -1.42029 220 212 200
2.22365 -0.0969328 0.88938 178 110 41
-0.407328 0.877593 1.18049 228 211 183
-1.30758 1.5337 -0.833144 163 165 159
3.22287 0.00673831 -2.7509 179 119 54
0.890935 1.67613 -1.36483 158 147 131
-0.166338 0.431777 -2.94544 168 146 118
3.13104 0.122798 0.0157511 154 94 35
-0.41421 0.111032 -0.760241 192 137 77
0.92253 -0.00342268 0.324084 185 127 67
0.358441 -0.0743673 -2.40233 158 104 44
3.19274 0.0166073 -1.03899 175 118 64
-0.33012 -0.0612364 -2.06204 215 158 93
-1.12057 0.943483 -3.11646 43 36 33
0.321349 0.906454 -2.9911 170 152 130
-0.996844 0.832131 2.07881 134 57 24
-1.11872 0.921665 0.167588 32 32 32
-0.644308 0.793406 1.49559 173 153 132
3.84455 0.505248 -1.14857 86 74 62
-0.699596 1.27285 -2.90873 129 131 121
4.64395 0.151668 -1.48971 50 57 64
1.68881 1.15779 -2.82869 122 94 68
-0.429195 1.11273 -2.65404 93 127 149
-0.641306 0.121899 -2.6675 137 95 42
3.92106 0.323487 -1.31034 72 100 104
4.57934 0.0150779 -2.10709 102 67 37
-0.609182 0.0299198 -1.87852 125 80 27
-0.681427 0.770298 0.928711 184 183 157
-0.516535 0.758982 1.67615 162 166 142
-0.986397 0.105101 0.756872 112 74 47
3.05542 -0.0195873 0.379026 183 115 50
0.207201 0.295696 1.54265 138 82 23
-1.63853 1.03875 -2.82673 142 44 44
-0.951304 0.721223 1.32764 155 150 135
0.0392825 0.0549669 -2.4519 158 98 32
-0.440946 0.357467 0.781819 110 75 49
-1.0738 0.767312 1.13864 143 151 123
-0.657186 0.732645 1.10003 194 181 155
-0.801092 0.831344 1.59327 135 140 133
0.0108773 -0.0266558 -1.81174 177 121 65
4.22402 0.703521 -2.90957 159 130 100
-0.874734 0.755146 1.72245 74 88 87
0.454738 0.0255777 -2.19291 206 170 139
0.843933 0.348228 0.200576 166 147 127
1.29858 0.349239 -2.75523 129 93 56
-1.58419 0.969856 -0.849036 9 9 11
0.150751 0.0503678 -2.08959 92 50 6
-1.08683 0.918837 -2.99629 121 95 90
0.842503 1.59794 -0.873417 200 192 176
2.64417 0.432702 -0.671563 216 188 156
-1.4606 0.969911 -0.229872 111 109 107
-0.418819 -0.0681345 -1.12479 125 78 27
0.420769 0.638158 2.42263 17 15 18
-1.60241 1.24544 -1.75665 186 188 176
-0.0725621 0.0785412 0.0223755 125 116 108
1.74858 1.23865 -2.95882 125 92 26
0.735582 0.965344 -0.0556469 196 187 171
-1.14738 1.55385 -3.27292 171 163 147
0.820429 1.04965 -1.8383 106 91 70
-0.122339 -0.000469359 0.118267 157 97 34
-0.244378 -0.0291722 -0.324976 205 147 83
0.769817 0.938346 -0.291598 122 115 99
3.64414 0.0399394 -3.27655 166 143 121
-0.391874 -0.173862 0.734941 119 66 14
0.843152 1.67609 -1.32139 180 168 143
0.260139 0.0440691 -2.60258 100 64 25
-1.03519 1.09867 -0.219274 75 60 43
0.162197 1.17083 0.208983 137 116 95
0.0608504 -0.047556 0.470973 137 80 17
3.15649 0.00209807 -3.09034 143 91 36
6.22044 0.34868 -1.65877 27 21 16
-1.62849 1.12773 -2.88364 195 175 154
2.53239 0.445159 -0.276548 118 78 84
-0.225911 0.77279 1.95992 61 57 51
-1.68403 1.03211 -2.10749 172 170 164
-0.289997 -0.0815069 -1.14304 179 116 53
3.06935 -0.0171677 -4.13002 93 58 25
0.327574 0.0609196 1.35896 106 62 16
-0.946692 0.818727 2.1643 85 35 14
1.1229 0.319594 -2.84784 155 128 104
-1.55751 1.09482 -0.865413 65 68 69
-0.352944 0.600923 2.31479 133 119 104
-0.0669126 0.0843904 0.137789 137 81 24
-0.35747 -0.00818516 -2.14877 192 129 62
3.92659 0.84202 -2.92973 111 82 52
0.00322113 -0.00396775 -1.99479 123 116 108
-1.33007 0.941994 0.229039 13 10 13
3.85281 0.493271 -0.383081 118 107 102
-1.60628 1.11193 -1.34232 209 113 115
-0.00536376 1.60981 -2.25861 161 147 127
-1.03344 0.825018 0.650799 198 176 165
4.03313 0.333834 -1.27238 82 90 13
2.76428 0.58082 -0.0976409 132 122 104
-0.0518027 0.963766 -3.30077 163 151 135
-1.36531 0.950171 0.919935 172 153 138
3.60164 0.671448 1.33641 174 162 148
0.885556 2.43243 -1.19351 164 149 121
0.963734 1.66987 -0.964031 186 175 159
2.40181 -0.0315816 -0.159861 94 52 4
-0.360374 0.00735793 -0.438635 193 132 63
0.933755 -0.000687763 -0.167926 56 27 1
2.25683 0.503468 1.28523 176 154 131
-1.53771 1.00375 -0.488384 187 187 177
1.5233 1.36022 -3.09706 27 42 22
3.5902 0.0476304 -1.71341 177 117 58
-0.126763 0.0558155 -1.87172 166 106 49
1.00276 0.000162276 -2.03987 168 117 67
-1.04457 0.645383 -1.44909 178 170 161
-0.0740139 1.3552 -0.437251 87 122 115
3.81488 1.47776 0.921003 63 69 14
-0.780568 0.0661479 -0.522785 174 124 63
-1.19973 0.121902 1.19257 132 83 40
0.840587 0.748987 -0.156693 146 140 121
3.84748 1.14551 0.985395 66 68 22
-0.1455 0.510054 2.4474 177 159 139
-0.199094 0.00154221 -0.268832 191 130 65
-1.1538 0.387417 -0.810317 51 33 17
-0.989401 0.0802453 0.773187 119 80 51
-1.11931 0.185643 0.268762 183 157 130
5.08554 0.179065 -2.28738 90 45 37
-1.10823 0.598236 2.15186 92 77 62
-1.18214 1.70216 -0.146047 167 169 162
1.96734 1.35305 -3.09058 188 176 158
-0.102602 -0.0485264 -2.26253 139 85 27
-0.136905 -0.0972307 0.246351 139 79 16
2.94121 1.28259 1.23403 197 185 171
-0.709899 1.27767 1.19402 134 124 108
-0.67386 -0.124997 -2.51338 137 92 46
-0.0868758 0.0379143 0.505574 174 111 42
-0.0823387 -0.0100509 -1.99635 160 104 43
-1.54283 0.987381 -1.32151 226 226 183
1.23664 0.555199 -2.88173 39 47 43
-1.19179 1.54476 -0.644515 245 245 243
-1.08872 0.0697289 -0.539758 106 65 28
-0.358497 0.844003 -3.08229 114 100 82
2.53459 0.0920441 -2.71805 149 120 91
2.73403 -0.0751998 0.237341 112 62 15
-0.279382 -0.00333148 -0.23747 178 126 70
-1.44341 0.960645 -2.44166 154 208 243
-0.0162525 1.37841 -0.62433 213 212 208
-0.660573 1.34255 -3.25458 155 148 139
0.845108 1.39933 -0.922919 169 162 146
1.68817 1.2525 -2.83082 91 70 35
1.91695 0.552138 -2.67691 186 165 141
-0.671565 0.767555 1.11132 219 203 166
0.825879 1.9288 -1.18954 173 162 145
3.57001 0.441445 -0.114738 143 131 124
2.61892 0.622874 0.0164883 228 220 211
0.070429 2.07032 -0.686354 175 167 153
2.38088 0.521147 1.34565 177 168 152
3.95351 0.814015 0.773741 120 102 81
0.993786 0.0387236 -2.20881 105 63 14
4.65701 0.0427925 -2.35338 182 155 127
-1.39458 0.599129 0.653299 157 128 99
4.6436 -0.0389294 -2.12856 85 53 28
5.69277 -0.0372013 -1.87614 115 81 46
-1.29104 0.910852 -2.85587 178 177 173
-0.0258473 0.347115 -2.44999 175 151 120
-0.315775 1.1664 -3.04561 52 81 104
-0.515629 1.00028 1.92628 52 47 42
1.4903 -0.0376009 -2.08325 146 95 47
6.33198 0.775717 -1.90993 8 6 10
-0.743943 0.790084 1.79057 97 73 57
0.631592 0.829132 -1.6699 90 75 54
0.809474 0.124499 -1.96259 130 112 90
0.805134 -0.003332 0.438566 204 133 70
-1.23915 0.958069 -0.0704445 89 85 78
3.93476 0.724894 1.1245 72 74 56
-0.649722 0.842027 1.0844 237 208 158
-0.0249458 -0.0431482 -1.91748 173 118 64
-0.836578 -0.0754268 -3.09727 126 87 43
-0.248736 0.105208 0.129274 143 89 32
-0.141878 0.296394 1.54911 72 50 33
5.97923 0.183843 -1.43306 117 87 54
-1.61459 1.14482 -2.68124 140 94 90
-1.59828 1.20802 -0.0830995 247 231 186
-0.809393 -0.0288133 -1.20345 140 92 39
1.85218 -0.044258 0.656014 181 117 45
0.97516 -0.0381481 0.581568 196 127 62
0.508023 -0.0105149 0.364632 193 131 78
0.0783492 0.0475207 -2.04455 181 156 124
3.0091 0.175028 -2.58208 124 80 40
0.134102 1.33072 0.389267 126 113 101
-0.438022 0.075773 -0.43257 182 130 68
-0.0260735 0.264498 -3.07988 153 132 107
-0.383292 -0.0341662 -2.80066 100 56 8
1.60619 -0.00637362 -2.35396 139 94 46
-0.495944 -0.0349614 -2.49273 155 109 58
-0.495177 0.766481 1.42383 179 160 131
0.099675 0.949563 0.269978 120 106 91
-0.343663 -0.0252647 0.546446 134 78 23
-0.726456 0.770806 2.40971 46 44 34
2.37915 0.427511 -0.650061 182 209 190
3.53366 0.537488 -0.294837 153 140 134
4.27255 0.091607 -1.53745 145 123 105
-0.361531 1.32281 -3.00517 42 66 86
-0.497982 0.486267 -2.83408 126 93 52
0.202554 -0.0150564 -2.16227 122 76 24
4.01352 0.594269 0.285095 133 118 108
4.11515 1.0311 -0.558212 225 212 193
3.30943 0.0221284 -2.80666 161 107 51
0.829468 1.38525 -1.93399 157 146 121
0.926799 2.51702 -2.02186 156 139 116
0.964387 -0.000219499 -2.04269 154 113 71
2.38326 0.822849 -2.76534 212 194 173
-0.117858 -0.0302893 -0.324933 195 129 60
3.32076 0.0239915 -3.09884 134 85 37
-0.800361 0.718049 1.24235 205 188 155
-0.00140021 0.0662645 0.123453 147 96 40
2.28402 0.439895 -0.521649 231 176 165
-1.18804 -0.0590057 -2.20485 142 102 56
3.38765 0.521417 0.71761 106 93 86
0.828696 2.20307 -1.1746 184 167 140
4.1173 0.633592 -1.17743 1 28 65
2.43173 0.00770847 0.00684196 117 66 19
2.42991 0.0538362 -2.58212 122 78 35
1.90743 1.01754 -2.75984 210 192 170
-0.0531997 -0.00326332 -2.31279 148 91 28
4.60703 0.0303042 -1.88775 102 65 29
3.6435 0.439036 0.32273 125 98 69
-0.044989 -0.00329941 -1.45707 163 111 63
4.04801 -0.0277833 -1.81243 143 90 41
3.84028 1.14562 0.763268 135 110 87
2.10183 1.56762 -2.7696 143 123 58
0.225017 0.118352 -2.06239 227 202 173
1.07101 0.580049 -3.06403 219 207 189
0.872736 0.32975 -2.0472 158 143 123
-1.00785 0.765484 1.36767 196 159 138
0.213147 0.140417 -2.50095 141 91 31
0.0868872 1.06233 0.0519789 139 121 100
-1.39525 1.01777 -2.57337 96 94 91
3.137 0.0437323 0.305687 174 112 45
-0.00694658 0.948544 -0.437717 130 63 54
0.849633 1.90756 -0.0589833 167 157 137
-0.710692 1.58643 -3.0842 178 174 157
-1.0713 0.729156 -2.92713 191 185 172
2.07303 -0.113933 0.061857 183 117 55
1.03092 -0.0295868 -2.33071 186 135 86
1.0405 -0.00167357 0.197604 167 107 47
0.655994 1.72939 0.0399947 102 96 91
4.13925 0.870857 -0.868701 114 128 153
-0.734745 0.143804 -2.44598 112 74 27
-0.199917 -0.00901486 -0.15488 181 119 55
-0.318456 0.00283292 0.161561 146 92 36
-0.869706 0.685319 1.20639 217 208 185
-0.851951 0.0361657 -2.26966 146 97 42
-0.551839 0.707666 0.518896 163 115 65
-0.475802 -0.0698642 -2.49492 142 96 43
2.54667 0.210441 0.470354 220 154 86
1.68744 0.0921334 -2.44123 126 80 37
-0.00483328 1.20393 -0.712328 187 186 179
1.41337 0.0536763 0.433522 165 107 50
-0.321022 0.0361169 -0.694477 176 119 57
-0.915502 0.732825 1.47025 194 182 159
2.51347 0.228731 0.80953 72 63 52
-0.684162 -0.0769613 -0.0607983 149 93 39
0.871285 2.06189 -0.499427 203 191 173
4.60431 0.591699 -1.51885 45 38 29
-0.029667 0.960319 -0.275203 138 113 95
-0.987985 -0.0834034 -2.9391 132 92 53
3.87171 1.42003 1.18933 141 124 104
1.14929 0.176531 -1.67981 2 2 0
-0.290092 -0.0954399 -2.96401 95 59 25
3.0805 0.008306 -2.14334 133 87 42
-1.65832 1.22058 -2.93608 233 226 206
-0.90719 0.630406 -3.04958 182 173 159
1.89227 0.198269 -0.557291 162 101 45
-0.0331476 1.76005 -0.405994 188 155 145
4.28015 0.271004 -1.11947 104 33 4
-0.0371588 0.622813 1.93129 99 76 57
0.841161 1.02766 -1.86843 105 89 66
0.232106 -0.0215838 -2.16903 156 112 63
-0.0727823 0.155476 -2.63268 100 72 39
-0.645408 0.777124 0.53896 183 149 123
-0.468817 0.0902128 -0.921902 183 129 62
-0.522379 0.480936 -3.07823 160 146 122
6.71419 1.11497 -1.3673 65 56 47
2.74014 0.0195176 -2.47326 139 91 46
3.04504 -0.074987 -0.815746 114 68 22
-1.40448 0.78942 -1.0782 107 106 102
-0.221041 0.4333 -2.86128 190 149 102
0.815626 1.53617 -1.58016 167 156 131
-0.397052 -0.000929629 -1.87966 214 159 100
0.234622 -0.0490575 -1.25785 218 199 184
0.251367 -0.00175075 1.33457 149 91 29
0.834257 1.89009 -1.2945 191 174 148
0.453855 1.30133 -2.01453 160 143 123
-0.550349 0.00453616 -0.0765465 146 93 38
0.411965 0.173128 0.774277 210 142 68
-1.1095 0.317747 -2.46141 194 179 159
0.111983 0.529178 -0.141198 124 108 89
0.000349582 -0.00088029 0.000975027 135 125 114
2.68847 1.61982 1.19218 190 178 165
0.840067 0.276184 -0.0800513 109 100 83
1.3991 0.599401 -0.308781 89 96 71
1.81618 1.02075 -2.50841 221 203 179
-0.422079 -0.0505878 -1.74877 219 164 105
-1.40361 1.14844 -0.0801512 144 143 147
-0.074148 1.66635 -0.54882 117 84 94
4.22307 0.0185071 -2.31964 153 110 71
-0.285185 0.772981 1.4943 111 93 82
-0.874582 -0.0715821 -2.39163 175 123 66
0.0859287 0.331759 1.3699 127 103 81
-0.00281941 1.43302 -0.435447 107 119 120
2.95427 0.00684003 -3.30909 115 69 22
-0.0425316 1.62206 -1.08111 131 128 124
2.83968 0.555071 1.32414 119 110 99
2.16036 -0.240544 -2.27434 125 79 33
0.499948 0.164312 2.14487 66 56 46
2.4655 1.6013 -1.77836 224 209 187
-0.429782 0.636393 -3.11758 100 98 86
-1.50514 1.16404 -0.99986 114 94 76
2.16039 0.724283 -2.70148 211 193 174
5.2644 -0.0838007 -1.73929 96 61 27
0.843611 0.279577 -0.116427 117 108 87
0.00893929 1.20537 -0.631594 145 150 146
-1.15674 0.909637 -2.96327 71 56 50
0.543404 1.73124 0.011431 67 62 56
-0.677705 0.743091 1.53058 160 140 125
3.44671 -0.0508952 -2.65885 147 94 43
6.59845 0.719563 -1.53525 28 25 24
-1.53884 1.1535 -2.67714 188 92 94
0.864134 1.80808 -0.178673 185 176 157
3.75426 0.667643 -3.09134 213 195 173
1.18825 0.401614 -0.151004 68 58 29
0.0909362 0.679505 -2.14524 160 133 102
-0.40293 0.753484 1.83772 91 75 63
2.29574 -0.0132853 -2.56201 122 78 34
0.439506 0.0440432 -2.35743 98 55 9
-0.521188 0.453771 -2.81137 162 139 118
-0.701063 1.25565 3.79389 112 110 108
2.86668 0.318205 1.31647 29 23 21
-0.0449889 1.33818 -0.468842 72 91 99
0.889963 2.21504 -1.05728 176 164 148
-1.20122 0.0821044 -1.53851 208 177 144
0.821923 0.757093 -0.0988158 187 178 156
-1.29009 0.965839 0.223739 12 13 19
-0.98241 0.786588 1.36334 192 195 163
-1.64233 0.955 -0.850157 56 55 56
-0.262931 0.00828961 -0.597765 199 135 66
-0.640056 0.0796455 -2.80664 204 163 124
-0.0353648 1.27687 -0.464311 70 84 77
-1.22665 0.739875 1.16308 160 148 130
-1.23193 0.609307 -1.35764 198 193 185
-1.52166 1.051 -2.94638 88 70 61
-0.163985 -0.150664 -2.93983 158 106 64
1.01715 0.321407 -3.0394 153 115 98
-1.06612 -0.238544 -1.21464 193 139 70
0.0520177 0.0631453 -2.77486 152 95 31
1.29553 -9.755e-05 -1.79151 134 85 38
1.92925 0.999648 -2.79399 172 158 140
-1.43012 1.07579 -1.19014 181 179 147
1.3354 0.054526 0.922366 176 111 45
4.09735 0.758119 -2.68499 226 209 189
-1.44259 1.19937 -2.8849 226 212 191
-0.190476 -0.00119655 -2.58919 173 116 51
-0.1992 -0.0453745 0.112933 154 94 31
-1.17774 0.499779 -1.42625 212 192 173
-0.734682 0.795655 2.00138 176 132 113
0.816734 1.26583 -2.02162 161 148 123
-0.531922 1.48552 2.11374 154 123 104
-0.0588646 0.0284432 0.592541 113 62 9
-0.0862546 -0.00409805 -1.91184 169 113 55
-0.0044676 1.74607 -0.538067 185 172 172
0.13682 -0.183785 -2.21027 228 194 162
0.833464 2.32144 -1.51161 159 148 120
4.1068 0.167143 -3.1702 190 170 147
2.20744 0.10762 0.689653 182 114 47
-1.31234 1.24204 -2.3285 233 217 194
4.28516 0.0548616 -3.01428 210 190 170
1.00122 -0.0264152 0.395898 179 114 52
-0.1297 0.0503177 -2.03571 165 107 43
-0.124998 -0.0128815 0.558001 156 98 36
-1.69925 1.11138 -1.9867 148 139 122
0.875946 1.81205 -0.730668 202 191 175
0.944306 -0.0240539 -2.24182 227 170 116
-0.874284 0.765276 1.04234 199 191 157
-0.576607 1.54821 2.26283 183 112 89
2.82091 0.477108 1.18783 64 56 45
1.11614 0.0773193 -0.0138649 149 112 80
3.88359 1.50895 1.11038 132 112 83
-1.60206 1.13351 -2.86198 185 146 130
-0.279996 0.0288867 -2.02963 179 117 54
-0.267244 0.152839 0.545038 140 83 22
-0.10766 1.55829 -0.6669 174 171 170
-0.149964 -0.192223 -1.91229 156 99 37
-0.353999 -0.0372867 -0.585646 187 123 60
-1.4118 0.743038 1.92989 115 80 58
3.32222 0.342287 0.526732 107 93 83
-1.27616 0.986398 -1.39603 196 197 159
0.846284 1.14494 -0.237089 135 126 111
0.849106 1.9975 -1.39605 179 163 134
-0.275237 -0.0663074 -1.4674 161 106 44
-0.793675 -0.0849108 -1.68874 168 115 56
-1.36445 1.55499 -2.5195 161 153 141
1.21204 -0.0381111 -1.7609 126 81 41
1.15778 -0.00950297 -1.87774 143 96 54
4.01069 0.992051 1.13109 72 67 39
-1.1251 0.965254 0.0819902 64 62 61
-0.332944 -0.0239229 -0.049994 149 94 37
4.47468 1.00489 -1.31269 148 130 112
-0.0903947 0.16948 -1.74328 183 126 68
2.1127 1.35285 -2.94811 83 69 26
2.35996 0.468301 -0.208855 135 118 125
0.769029 -0.00394787 -2.23459 186 138 92
-1.27214 0.146536 -2.87489 162 148 133
4.34467 0.208047 -2.09064 138 111 83
-0.560828 -0.0373361 -0.157884 131 81 28
1.69376 0.131003 1.065 171 106 36
4.14033 0.902598 -0.0308568 148 130 115
0.494807 0.879888 1.98239 60 50 43
-0.819438 0.988169 0.300337 196 167 135
-0.15827 0.536622 0.0171086 214 190 166
3.94876 0.800761 0.973882 107 98 62
-0.190982 0.00112457 -1.95773 184 126 64
1.3757 0.766412 -2.70041 207 187 162
3.66227 0.533302 0.948511 121 117 72
-0.462029 1.75693 -3.02429 71 58 38
-1.59851 0.400482 1.95542 114 93 74
-0.399117 -0.0721669 -1.53444 148 97 41
-0.916281 0.908526 -3.28658 171 161 144
3.93767 0.858513 -3.10068 132 106 82
3.93154 0.874135 -0.605341 117 103 90
4.86584 0.300042 -2.17733 115 78 67
2.16188 -0.00632826 -2.2406 122 76 31
0.806593 0.28521 0.211716 159 142 125
-0.657734 0.0621098 -1.84731 121 78 32
-0.278634 0.0339843 -1.70337 138 79 15
-0.130642 -0.034766 -2.11916 161 104 40
-0.146633 0.0372984 -0.677377 195 129 55
1.16791 0.0237592 -0.11417 195 132 71
-0.465523 0.0982479 -1.91377 151 107 62
-1.36606 0.886784 -0.179398 75 74 71
-1.34332 0.85432 -2.7284 41 40 37
-0.88485 0.520003 0.67517 110 69 38
-0.0766257 -0.0319126 -1.68505 161 103 42
0.924086 -0.0624967 0.119612 124 79 35
0.911036 -0.0523886 -2.47095 188 133 75
-0.394581 1.67052 2.24152 167 142 123
4.35565 0.806297 -2.54294 223 209 188
2.16231 0.0309211 -2.26049 155 102 51
-0.876394 0.787069 0.969846 174 166 147
4.56567 0.129248 -2.18829 147 122 96
-0.00955802 1.76042 -0.959776 136 135 133
-1.24238 1.25723 -3.14031 240 209 166
-0.137018 -0.042475 0.0229351 165 100 34
0.65787 0.281207 -2.02409 225 203 178
-0.138203 -0.141325 -2.62469 190 127 54
0.345336 -0.0332461 0.338539 193 147 104
3.26094 -0.0553027 -3.86714 115 77 38
3.24784 0.0825873 -1.21444 218 162 97
0.0115513 1.1271 0.00803129 177 156 145
2.71282 0.0340733 -2.40047 223 158 90
-0.282385 -0.130654 -2.89417 117 77 37
-0.271112 -0.0033247 -0.276044 196 141 82
-0.0281862 1.56381 -0.797766 214 212 209
-0.279748 0.637352 0.901169 50 42 40
1.76486 0.0758248 -1.84765 206 150 94
1.88933 1.20544 -3.15574 111 104 95
0.0510363 0.0245189 -0.316967 225 201 176
4.20414 0.196217 -1.18941 71 65 32
0.0358179 1.61945 -0.855254 195 188 176
-1.27411 1.64922 -2.02489 158 154 141
0.932696 0.0307365 -2.19397 215 160 106
-0.597335 1.37221 -3.0973 147 173 187
3.64736 1.05759 -3.7507 114 101 85
3.17549 -0.00622238 -2.10422 129 84 39
0.769072 0.238765 -0.0129661 193 182 159
3.95793 0.808197 1.21681 78 60 34
2.51913 0.27809 0.842993 61 53 43
0.550696 0.927355 0.12934 42 41 40
-0.315603 0.0304389 0.157238 145 91 34
-0.819227 0.200297 -0.150835 125 84 43
-1.59864 1.03334 -2.67068 200 28 29
0.843127 0.888221 -1.86688 116 103 80
-1.60452 1.12643 -2.33294 123 186 188
0.706769 1.22115 -1.23079 16 12 12
0.52201 0.0389945 -2.09542 204 159 120
0.526752 0.0105548 0.523062 170 111 52
-0.875296 0.785752 0.920432 212 202 184
1.16127 -0.0361082 0.264816 173 110 50
0.838974 1.15248 0.0429652 185 177 159
-1.56632 1.15734 -1.62963 122 113 68
-0.183983 0.244889 -2.12002 122 80 31
0.920297 -0.00334235 -2.07409 192 143 97
0.925675 -0.0457026 0.435916 207 138 72
0.0862871 0.0922875 -1.99717 226 202 175
4.55016 0.439846 -1.43222 28 28 26
1.2173 0.454638 -3.06074 82 80 69
1.18742 0.162979 -0.337663 96 67 40
0.865764 1.91031 -1.18341 153 144 127
-0.880046 0.727006 1.79463 208 191 178
-0.368463 0.511774 -3.12618 135 121 100
1.55667 1.3408 -3.12655 39 57 37
0.866699 1.96801 -0.560295 203 193 174
-1.18967 0.690147 -0.889941 10 8 7
3.33095 -0.0148549 -2.81918 173 114 53
6.22062 0.365197 -2.12302 25 23 16
2.53928 1.43737 -3.02459 206 188 173
-0.0314857 1.43992 -0.478327 110 120 124
4.25203 0.659463 -2.10764 26 24 18
0.803872 0.927238 -1.91168 127 109 85
-0.72871 0.826538 2.11314 103 59 42
0.0326172 -0.0337869 0.436391 133 76 14
0.0485932 -0.0103402 -2.16625 151 97 32
-0.555161 0.954763 -3.1105 52 68 71
-0.99808 0.831051 0.64342 205 169 145
-0.716183 1.31958 1.2322 154 145 136
-0.393617 -0.00669245 -2.15372 160 106 46
1.27519 0.0766226 -0.0343979 141 89 37
-1.08811 0.711336 -0.811379 116 99 79
-0.192247 -0.00265553 -1.9925 186 127 64
6.74615 1.30088 -1.33184 98 79 63
-1.13204 0.915528 -0.919478 146 143 136
-0.31095 -0.0089877 -2.3859 152 99 41
1.35458 -0.268777 0.139203 137 85 28
2.31414 1.64144 -2.87071 187 175 159
1.1134 0.246044 -1.73162 9 4 2
3.88519 0.854593 1.00056 112 97 63
4.04593 1.17794 0.84289 172 148 115
0.948297 -0.0289626 -1.82313 86 50 16
1.57869 0.0235445 -1.78525 172 114 63
-0.00960769 1.5975 -0.880698 209 203 198
-1.43072 1.31722 -0.232357 171 162 151
3.96951 1.28146 -2.99774 168 154 131
2.68489 0.439395 -0.753482 237 224 205
6.21516 0.440971 -1.61933 75 62 51
3.83299 0.348595 -1.35948 96 140 133
1.69661 1.25535 -3.03126 157 140 94
0.0188283 0.0136895 -0.564681 228 196 162
-0.626348 0.614059 0.609985 199 162 132
3.4086 0.715225 1.72909 177 164 154
2.98243 0.0948912 -3.712 78 46 10
2.91816 0.0199442 -2.49679 197 132 67
-0.463479 1.45474 -3.17877 155 157 153
2.43651 0.448371 -0.478767 177 163 101
3.96547 1.14327 -4.63534 52 44 33
4.26029 0.742543 -1.53985 111 93 77
-0.566714 0.705577 1.78198 162 118 86
0.0639488 0.314722 0.200086 176 156 133
-1.41993 0.945812 -0.132896 126 121 117
-0.578741 0.889042 -3.1893 131 142 136
-0.323694 -0.0361506 -1.07932 190 135 63
2.61465 0.32478 1.02731 69 61 49
3.87196 0.696715 -2.08377 220 206 190
1.92485 0.0406374 -1.16077 171 116 64
2.19535 0.07806 -1.11931 168 107 50
5.91285 0.583555 -1.55632 64 45 29
-1.22123 0.901064 -0.262231 34 33 32
2.70359 0.413705 1.01965 35 28 25
0.266722 1.44114 -2.03334 129 117 101
0.725139 0.00133888 -3.10482 129 87 51
0.911015 1.71257 -1.40517 140 130 105
0.0240837 0.240388 -1.74728 224 199 169
-0.0781312 0.0352187 0.317693 147 89 27
-1.45722 0.057112 1.07889 148 94 39
-1.09324 1.0002 -1.39074 119 136 109
2.55208 0.318287 0.935265 54 45 36
-1.55293 1.04104 1.44192 157 139 122
-1.56341 0.918845 -1.21572 126 155 66
-0.993325 0.77663 1.59866 133 146 156
-0.548716 1.58586 -2.57301 217 206 192
-1.6756 0.830985 -2.72671 45 45 42
-0.920493 0.803719 1.52268 136 146 144
1.0367 -0.00161992 -2.06966 175 124 70
0.0743113 1.25035 0.27823 173 147 118
0.817728 0.140139 -1.90682 92 79 58
0.801409 0.00357504 0.393417 196 131 68
-0.601736 0.734738 1.83081 80 48 49
7.16928 0.698306 -1.57402 28 21 17
1.15902 -0.004828 -2.27497 155 107 56
2.60442 0.544482 -0.0324726 217 220 213
-0.319786 0.164152 -1.55211 152 98 34
-1.15771 0.963357 0.16218 31 31 31
1.30373 0.671895 -0.283049 181 144 107
-1.22604 0.918919 1.60177 156 141 121
-0.480185 0.0497546 0.460879 130 80 33
-0.482205 -0.00987022 -2.15019 129 81 26
-0.455562 1.46893 -2.98233 73 100 124
3.73781 0.397677 0.471974 156 142 130
-1.17216 0.908044 -0.919491 157 156 151
-0.294259 -0.233566 -1.67127 165 103 34
0.0468371 0.439142 1.22363 35 22 10
4.44832 0.795453 -0.113616 133 116 98
0.764774 0.366068 0.158234 206 188 164
4.30097 0.702325 -2.23946 186 169 148
-0.956254 -0.0554043 -3.07326 111 76 34
-1.27507 0.89027 -1.65509 234 237 235
0.436107 0.418379 2.22262 104 92 79
0.667223 -0.0753543 -2.28477 208 166 128
4.21348 0.362086 -2.80178 226 208 185
2.33316 0.000461023 -1.13447 188 132 78
0.0927687 0.615047 -1.48532 223 208 189
4.28501 1.14122 0.387424 218 201 180
3.45552 -0.138703 -3.6954 121 76 33
0.800029 1.45727 -0.089228 185 175 158
0.840831 0.554427 -1.9156 124 106 80
-0.610256 -0.0449688 -0.134303 147 98 51
-0.923357 0.760164 1.32249 185 170 143
3.4739 0.368817 0.831236 121 67 45
6.40875 0.596711 -1.8616 46 44 42
1.01145 0.419009 -1.57439 112 86 55
3.41737 -0.0450859 1.14341 27 23 15
4.2552 1.09038 -0.135381 227 214 195
4.25146 0.617653 -1.25559 224 212 195
-0.483471 0.0711071 -0.721041 163 112 52
-0.442071 0.100559 -0.92588 158 97 39
4.6467 0.370889 -1.35657 85 42 17
4.39111 0.285641 -1.45822 89 87 80
1.29657 0.0725958 -2.24391 188 129 76
0.802942 0.919911 -0.0738334 183 177 156
3.46289 0.124355 -1.3586 18 13 9
2.28482 0.128269 0.141663 198 139 79
0.839411 1.02085 0.0645074 193 186 161
0.247897 0.0290923 1.01283 95 53 14
2.77693 -0.00540364 -2.53726 127 84 43
-0.423009 0.825076 1.75381 187 68 75
-0.419438 0.758765 -3.26952 83 72 59
0.0486636 0.0441533 -1.99169 174 162 145
3.63698 0.991368 -3.55821 84 73 60
-0.277557 0.00479475 -1.75719 172 111 51
-1.24289 0.740129 -0.861502 171 165 160
-0.631555 0.028217 -1.28804 133 83 24
3.1652 0.0869276 -2.76105 160 106 55
0.0761397 0.922833 -1.34904 177 166 151
-1.95735 1.05589 -2.71583 188 187 182
-1.03168 -0.2344 0.29305 144 94 45
0.76399 0.0427022 -2.06546 181 157 129
3.16095 0.3116 0.925033 51 43 32
-1.56479 1.16235 -2.6303 182 172 151
3.88608 1.59861 1.07407 149 139 122
4.03496 1.23746 0.888389 124 114 87
-0.785198 -0.0888409 -0.430875 184 130 75
-0.368802 -0.185067 0.493323 138 86 30
1.2019 0.444014 -3.04334 44 59 61
1.54255 0.0726713 0.276394 181 119 51
0.156162 0.5854 -0.667117 221 212 201
2.78429 0.0609978 -2.46508 214 150 84
0.759921 1.37137 -0.833351 201 195 180
3.95015 0.674904 0.291241 127 115 109
0.8817 0.236494 -0.161403 65 57 43
-0.971832 -0.013744 -1.61537 134 80 21
5.02517 -0.0796554 -2.2749 82 14 12
-1.53389 0.988948 -1.28247 226 219 195
-0.399826 -0.0383058 0.239499 163 110 58
0.0376274 -0.160427 -1.85187 147 100 52
-0.371691 0.0342925 -0.114775 192 131 71
3.25845 0.108185 -2.80917 107 62 21
-0.248734 0.0317156 -0.745965 192 128 57
2.97962 0.0620392 -2.53166 175 121 68
2.61368 0.222234 0.647921 51 46 37
-0.835511 0.763738 1.93805 97 52 48
-0.0356747 -0.170877 -1.1503 192 130 66
2.995 0.462 0.913396 51 46 40
0.845716 0.629984 -2.83298 209 156 135
1.99972 1.15813 -2.99948 123 108 87
1.32763 0.874332 -2.68934 204 184 160
-1.03696 0.766622 1.12131 168 163 137
0.843276 0.23719 -0.229202 73 66 52
0.194892 1.83002 0.117744 49 45 41
3.88565 0.853892 0.173969 159 131 117
1.1117 0.26644 -0.204886 19 18 7
-0.385493 -0.0506508 -2.18863 204 156 104
-1.51606 0.654185 -0.997608 87 89 88
0.012965 0.0647121 0.624993 170 113 52
-0.00372088 0.0419249 -1.87433 166 110 53
0.318515 1.52196 0.0537823 67 61 56
-1.39504 0.265365 1.86511 99 66 55
3.71465 -0.114548 -1.25481 36 21 9
4.06402 1.32288 0.831164 117 107 63
-1.37797 0.781806 -1.97329 141 135 127
1.21543 0.502304 0.129256 64 76 52
0.750913 0.249122 -1.84123 109 102 80
-0.958284 0.770332 1.08542 210 194 165
3.08755 0.390358 0.882065 129 92 53
-0.829265 -0.00566911 -2.73102 130 88 37
-0.357242 -0.103254 -0.167717 190 126 61
0.893762 1.39167 -1.40691 203 197 181
-0.196105 0.0277051 -1.62859 203 136 70
-0.16088 0.765406 1.49982 80 66 59
0.0635365 0.0726301 -0.07869 137 124 110
0.0819086 0.02463 -2.59987 155 100 37
-0.679102 0.112492 -0.0964996 93 51 8
-1.0049 0.816358 2.35122 97 90 74
2.9166 0.421188 -0.838572 235 224 207
-0.00834333 0.781174 -0.415778 209 200 190
-1.34551 0.993081 -2.74124 154 145 132
3.88202 0.345562 -1.47728 87 110 69
0.780539 -0.0497417 0.223244 127 77 35
4.21997 0.949445 1.1436 82 97 68
4.21158 0.849897 -1.35995 130 115 98
-1.43593 1.04522 -0.469523 173 172 168
0.0414721 0.0335305 -1.95809 192 166 135
3.63341 0.0145283 -2.79822 159 106 52
-1.18983 0.968182 -1.22133 127 182 131
-1.19834 1.01286 1.21273 235 221 204
-0.235432 -0.00414761 -2.38946 173 120 61
-0.677573 0.0452417 -0.654154 161 113 54
-1.58855 0.637497 2.03571 115 77 70
-1.29929 0.957015 -1.66082 114 109 97
-0.677888 0.805349 1.79414 105 84 66
-1.6774 1.15998 -2.6883 192 183 167
-0.0431563 1.56002 -1.14867 228 191 127
3.50048 0.0218108 1.03318 76 50 24
3.7973 0.510728 0.401745 90 74 59
1.68773 1.16483 -3.01862 40 38 23
3.08079 0.0566403 -2.75486 165 115 63
0.538938 0.94694 2.14198 44 34 26
-0.145254 -0.0268776 -0.476884 208 140 67
1.00164 0.205149 -0.151143 39 28 16
-0.005284 -0.0270665 0.397056 176 116 54
-0.37209 0.766382 1.83567 67 52 44
4.90962 0.331179 -2.39093 79 28 24
3.46653 0.00174014 -2.39309 156 103 50
3.68961 0.0806711 -3.2419 155 136 115
0.49938 0.0237064 0.831481 122 67 5
1.16148 0.021834 0.385369 173 121 74
0.850694 2.26211 -1.43943 163 146 120
-0.469968 -0.0752629 -0.763592 175 121 56
0.631899 0.986064 0.170994 63 58 52
-0.831804 -0.0810143 -1.69805 179 126 73
2.60789 0.525178 -0.110326 207 173 130
0.720797 -0.000294432 -2.15617 179 133 91
4.22632 0.764651 -1.28065 229 216 199
0.8362 0.522136 0.130744 180 164 145
-1.32535 1.1249 -2.54142 175 154 141
-1.3215 1.07236 -0.0187199 145 141 135
-1.07132 0.714156 1.40265 203 178 154
-0.339919 -0.0280958 -1.65471 168 110 38
0.0241468 1.40816 -0.49625 61 72 78
0.796947 0.399715 -2.03144 148 134 113
0.576847 0.795918 0.304951 15 10 7
0.947736 0.0544681 -2.31624 213 154 104
-1.62022 1.2265 -1.7955 195 190 174
-1.42799 0.958225 -2.83183 117 112 103
-0.0790565 -0.0336742 -2.31005 144 95 41
4.11913 0.790258 0.12597 162 72 65
0.0900923 0.0439964 -2.31905 146 95 38
0.0707823 0.0857659 0.282957 174 148 114
0.0297374 1.16956 -0.556583 221 218 214
0.106774 -0.178271 0.580163 115 66 4
0.886798 1.60874 -0.314832 210 204 181
-1.10222 0.0419286 -1.64335 155 107 49
-1.61515 1.19923 -1.6547 49 46 44
0.2018 1.84717 -0.0119658 63 56 48
0.841395 0.396976 -1.96256 149 131 107
1.30056 0.90023 -2.79879 188 154 110
0.960616 0.362932 -3.09008 134 114 84
-0.369406 -0.042781 -2.38212 146 95 35
-0.116018 -0.0284012 -1.8338 181 119 59
0.835279 1.08278 -2.04223 170 160 142
-0.242085 -0.0462585 -1.20784 159 103 45
0.631812 0.0592214 -2.69118 186 135 86
0.0372908 0.00056228 0.370008 154 106 51
-0.419329 0.754372 -2.75103 100 120 148
2.03467 1.25219 -2.98181 209 192 175
4.19756 0.0106584 -1.73452 131 85 43
2.90734 0.318944 -0.436433 242 231 214
-0.023258 1.55931 -0.916601 212 208 179
-1.16384 1.72241 -2.44408 178 171 160
1.29625 0.34217 -0.265646 58 43 27
1.23251 -0.0117452 -1.99126 157 107 58
1.74418 1.23177 -3.07695 159 118 106
-1.51217 1.05557 0.356403 129 86 74
-0.123509 0.0266454 0.0787302 155 101 41
-1.17258 0.491224 -0.109569 200 181 158
0.806121 0.481746 -2.02686 134 123 103
0.794893 1.39768 -1.07517 171 159 140
-0.157262 -0.00479942 -1.95675 161 103 40
-0.161714 0.0395566 0.640733 121 69 17
3.28214 0.0314111 -3.07814 117 68 17
-0.383772 0.690205 1.84987 57 47 36
2.02682 0.027793 -2.2857 147 98 51
1.00494 0.44009 -0.077201 34 28 16
2.67814 0.447278 -0.562273 141 118 79
2.81255 0.465206 0.837155 49 42 35
0.0552664 0.477298 -1.91765 229 211 190
4.20754 0.127283 -2.59621 219 201 177
0.809954 0.201408 -1.83463 99 83 65
-1.15811 0.91969 -0.286755 51 52 51
4.23425 1.01309 -2.69377 229 213 193
-0.789848 -0.00300124 -1.04808 155 104 47
-1.63016 0.808235 1.51243 149 136 120
-1.4426 1.00723 -1.23852 199 182 151
-1.26784 0.300831 -1.19476 185 161 140
-1.75143 1.25984 -2.36985 200 192 172
3.80317 1.35978 0.923667 58 64 17
0.919156 -0.0689693 1.31243 158 103 47
1.98608 -0.0771473 -1.38084 205 154 112
2.80559 0.0802808 -2.76969 94 53 14
1.22943 -0.153172 -1.83923 147 101 60
-1.35663 0.978341 -0.259027 41 39 41
-0.0937587 0.35226 1.16164 56 32 9
1.00695 0.838599 -0.113024 55 60 44
3.23489 0.618122 0.614875 147 135 123
0.357936 0.0239684 -2.27366 169 129 84
0.761002 -0.000357015 -2.07411 187 141 101
0.762482 -0.0364049 0.427679 195 132 66
1.60128 0.0782044 -2.22922 208 156 107
1.45787 0.683902 -2.61724 201 181 157
-0.111281 0.0842863 -2.55896 130 84 31
2.58143 -0.139139 0.679161 206 139 68
2.30877 0.0166607 -1.52966 168 109 57
1.46891 -0.0128414 -1.55279 130 80 39
-0.23854 1.36003 -2.42956 147 129 108
4.10461 0.512598 0.270521 111 100 95
-0.997501 0.785619 1.60319 103 114 123
